//X;Y;Z;R;G;B
292.29901123;194.13099670;6.69099998;66;30;104
292.22198486;193.82499695;6.54400015;58;44;107
291.92599487;194.29299927;6.73099995;46;91;131
291.83801270;193.94099426;6.67399979;41;92;124
291.73999023;193.55299377;6.70200014;44;88;126
291.64801025;193.18699646;6.65500021;57;48;111
291.44400024;192.37199402;6.74300003;49;72;121
291.35998535;192.03599548;6.70100021;46;82;124
291.26300049;191.65100098;6.68300009;52;76;127
291.16000366;191.24200439;6.67799997;55;67;125
291.70098877;194.89700317;6.74599981;66;29;104
291.60198975;194.50199890;6.72599983;43;93;128
291.49700928;194.08599854;6.70599985;36;92;116
291.40701294;193.72599792;6.71099997;36;92;116
291.32299805;193.39399719;6.69199991;38;90;120
291.22198486;192.98800659;6.59999990;52;41;98
291.11199951;192.54899597;6.73600006;49;69;117
291.02200317;192.19099426;6.69999981;42;76;114
290.91598511;191.76800537;6.74100018;45;92;129
290.81298828;191.35699463;6.70599985;43;96;130
290.73599243;191.05200195;6.55499983;59;49;113
291.51000977;194.87300110;6.77400017;56;70;127
291.42001343;194.51199341;6.71099997;40;90;122
291.31298828;194.09300232;6.70200014;39;84;116
291.21701050;193.70700073;6.68699980;36;88;114
291.12100220;193.32499695;6.65999985;38;82;113
291.03100586;192.96499634;6.59100008;51;34;91
290.92898560;192.55900574;6.72399998;48;71;117
290.84201050;192.21499634;6.71000004;45;72;116
290.74099731;191.81199646;6.71899986;46;82;124
290.64001465;191.40800476;6.65700006;44;89;126
290.56100464;191.09300232;6.54099989;57;38;102
291.18301392;195.19700623;6.75000000;58;61;123
291.10101318;194.86900330;6.71600008;42;90;124
291.00201416;194.48100281;6.70699978;41;86;120
290.89999390;194.07200623;6.69899988;38;89;118
290.80899048;193.70899963;6.64099979;37;72;104
290.72698975;193.38400269;6.52400017;42;28;75
290.79000854;193.63299561;5.64499998;16;6;25
290.60501099;192.89599609;6.75799990;50;64;116
290.50799561;192.50999451;6.70699978;43;76;115
290.41198730;192.12800598;6.71700001;46;76;120
290.31799316;191.75199890;6.70499992;43;84;122
290.22399902;191.38099670;6.56500006;49;47;100
290.86199951;195.71299744;6.82399988;68;15;94
290.77301025;195.35800171;6.73699999;43;97;131
290.68099976;194.99099731;6.73099995;38;101;125
290.58401489;194.60699463;6.71000004;36;96;119
290.47799683;194.18600464;6.66800022;38;83;114
290.39401245;193.85000610;6.62799978;44;59;104
290.29000854;193.43699646;6.70800018;60;20;89
290.19100952;193.04299927;6.72300005;43;75;115
290.08801270;192.63499451;6.71500015;42;73;112
290.00601196;192.30499268;6.72700024;44;83;123
289.91101074;191.92700195;6.71999979;43;82;120
289.83700562;191.63000488;6.39200020;47;26;79
289.89401245;191.85800171;5.58500004;29;25;57
290.50201416;195.85200500;6.80399990;70;28;107
290.41299438;195.49699402;6.71500015;46;87;128
290.31500244;195.10400391;6.72700024;42;94;127
290.22900391;194.76199341;6.70400000;40;97;126
290.12298584;194.34599304;6.68599987;41;87;121
290.04000854;194.01499939;6.55200005;47;35;88
290.10598755;194.27299500;5.63899994;15;15;32
289.93899536;193.61199951;6.74499989;64;32;104
289.84600830;193.24099731;6.71500015;45;75;118
289.75100708;192.86099243;6.71700001;42;79;117
289.65301514;192.47000122;6.72399998;43;88;126
289.56900024;192.13600159;6.71099997;45;87;127
290.13900757;195.52499390;6.76900005;62;49;118
290.05200195;195.17900085;6.72599983;45;81;122
289.96499634;194.83500671;6.71000004;39;99;126
289.86700439;194.44500732;6.63800001;40;81;115
289.67498779;193.68099976;6.73000002;62;28;99
289.57901001;193.29899597;6.73600006;54;66;121
289.47900391;192.90100098;6.73099995;48;79;124
289.37899780;192.50300598;6.75799990;45;92;131
289.29098511;192.14999390;6.66499996;47;75;121
289.61898804;194.90499878;6.76800013;57;60;121
289.53298950;194.56500244;6.55299997;51;42;97
289.13598633;192.98500061;6.66099977;56;3;71
289.03298950;192.57499695;6.69799995;57;57;118
288.95199585;192.25199890;6.57200003;59;35;101
288.73199463;194.38299561;6.69199991;64;29;101
288.63800049;194.00999451;6.66900015;63;27;99
288.53900146;194.38299561;6.70800018;54;65;121
288.43798828;193.98399353;6.66400003;52;67;120
288.35299683;193.64300537;6.56500006;56;29;93
288.23999023;194.50999451;6.75099993;49;81;127
288.13598633;194.10299683;6.69999981;45;82;124
288.04901123;193.75300598;6.70599985;48;80;126
287.95800781;193.39199829;6.67899990;57;62;123
287.88000488;194.83999634;6.76700020;59;62;124
287.78100586;194.44799805;6.73799992;46;80;122
287.68099976;194.05000305;6.72700024;48;76;122
287.59201050;193.69900513;6.73799992;41;92;124
287.50799561;193.36099243;6.66699982;51;64;116
287.57901001;195.18099976;6.74300003;63;47;117
287.48699951;194.81399536;6.73600006;52;76;127
287.38900757;194.42500305;6.73099995;47;77;121
287.28601074;194.01800537;6.71500015;47;78;122
287.19198608;193.64300537;6.66499996;47;72;118
287.36700439;195.34100342;6.81500006;66;44;118
287.28500366;195.01499939;6.73999977;52;70;123
287.19799805;194.66799927;6.73400021;47;79;124
287.09298706;194.25000000;6.72300005;45;78;119
286.99398804;193.85899353;6.65100002;43;77;116
287.01000977;195.49099731;6.74300003;55;68;125
286.91198730;195.10000610;6.74499989;47;82;126
286.81600952;194.71899414;6.75000000;50;77;124
286.71899414;194.33399963;6.73400021;44;87;126
286.63198853;193.98800659;6.65100002;48;69;117
286.58300781;195.48800659;6.73600006;58;56;118
286.48599243;195.09899902;6.73299980;47;78;123
286.38598633;194.70300293;6.75199986;47;84;127
286.29400635;194.33599854;6.70699978;48;82;127
286.17498779;195.19799805;6.80399990;64;4;83
286.08300781;194.83099365;6.75799990;57;59;119
286.00000000;194.50100708;6.65700006;55;60;119
285.87701416;194.65199280;6.76599979;65;35;109
286.12200928;194.64300537;6.61499977;57;45;109
286.36401367;194.59100342;6.71899986;53;74;126
286.46701050;195.01300049;6.67600012;52;60;115
286.55398560;195.36999512;6.55499983;54;35;96
286.61599731;194.15800476;6.76300001;62;46;114
286.71200562;194.55299377;6.73799992;49;75;123
286.81298828;194.96400452;6.72900009;52;67;120
286.91000366;195.35800171;6.70200014;52;71;123
286.99398804;195.70100403;6.51300001;55;33;96
286.98498535;193.87500000;6.75699997;61;50;116
287.07400513;194.23599243;6.73400021;51;70;121
287.18099976;194.67399597;6.70400000;48;70;118
287.28298950;195.09100342;6.68100023;52;66;119
287.35800171;195.39900208;6.42799997;53;35;94
287.24600220;193.62600708;6.80700016;64;48;118
287.33099365;193.97500610;6.72200012;49;75;122
287.43099976;194.37899780;6.75099993;50;73;122
287.53298950;194.79800415;6.73299980;55;64;122
287.62600708;195.17599487;6.60400009;53;48;107
287.48098755;193.74800110;6.72399998;52;66;120
287.56201172;194.07699585;6.73500013;51;70;121
287.65499878;194.45799255;6.73199987;51;62;116
287.75698853;194.87500000;6.73899984;54;69;124
287.78201294;194.97700500;5.88299990;23;17;43
287.76599121;193.32099915;6.74300003;64;47;119
287.86099243;193.70899963;6.72900009;55;66;123
287.95999146;194.11500549;6.73699999;55;65;123
288.05499268;194.50000000;6.71600008;54;63;120
288.12600708;194.79100037;6.29799986;38;32;73
288.30300903;193.66999817;6.72499990;61;54;120
288.39498901;194.04400635;6.76399994;59;61;124
288.49600220;194.45599365;6.69600010;54;65;121
288.84698486;194.20399475;6.64400005;60;32;100
289.03698730;192.45799255;6.64499998;59;19;88
289.64199829;194.92300415;6.51399994;53;18;78
289.37701416;191.98699951;6.78499985;64;7;84
289.46899414;192.36399841;6.74300003;56;68;126
289.56399536;192.75300598;6.70300007;46;76;120
289.65798950;193.13600159;6.67700005;49;59;110
289.75601196;193.53599548;6.57900000;51;22;80
289.95901489;194.36000061;6.76900005;53;71;124
290.05099487;194.73899841;6.70300007;43;90;126
290.15100098;195.14500427;6.67899990;46;79;122
290.23599243;195.49099731;6.55700016;58;25;91
289.71301270;192.14500427;6.72499990;53;72;124
289.80899048;192.53500366;6.74499989;50;76;124
289.90200806;192.91600037;6.74499989;52;67;120
289.99301147;193.28500366;6.68200016;48;61;110
290.19799805;194.12300110;6.73199987;53;68;123
290.28399658;194.47200012;6.70400000;41;89;122
290.39700317;194.93499756;6.71199989;42;87;122
290.48901367;195.30900574;6.66400003;42;87;123
290.58401489;195.69799805;6.59700012;54;59;117
289.87600708;192.01499939;6.71199989;56;58;118
289.97799683;192.43099976;6.71400023;45;75;119
290.07699585;192.83500671;6.71299982;48;66;114
290.17098999;193.21899414;6.71999979;48;68;115
290.18200684;193.26499939;5.68900013;11;11;23
290.38598633;194.09399414;6.68900013;45;79;120
290.47100830;194.44099426;6.68599987;41;85;119
290.57199097;194.85400391;6.71099997;44;85;124
290.67599487;195.27499390;6.67000008;42;87;122
290.76800537;195.65100098;6.56500006;55;53;112
290.09399414;191.65600586;6.78599977;65;35;108
290.20098877;192.08999634;6.74700022;55;62;119
290.29400635;192.46899414;6.68200016;44;66;109
290.38500977;192.84199524;6.68900013;48;58;109
290.47900391;193.22500610;6.60300016;52;35;93
290.40899658;192.94099426;5.85699987;11;6;18
290.60000610;193.71800232;6.71899986;56;56;116
290.69900513;194.12199402;6.69000006;41;77;114
290.79998779;194.53199768;6.70699978;40;83;117
290.90701294;194.96600342;6.69600010;42;90;124
291.00299072;195.35800171;6.66599989;46;80;122
290.45700073;191.27499390;6.83199978;67;21;99
290.55200195;191.66099548;6.75500011;54;69;124
290.66101074;192.10400391;6.73799992;48;76;122
290.76300049;192.52200317;6.71600008;45;67;111
290.84899902;192.87199402;6.60400009;49;43;97
290.96200562;193.33099365;6.75000000;55;58;117
290.86499023;192.93699646;5.71299982;11;3;17
291.05899048;193.72799683;6.70200014;40;81;115
291.15301514;194.11000061;6.70300007;41;83;118
291.25100708;194.50900269;6.71799994;40;95;125
291.35400391;194.93099976;6.64799976;46;79;121
291.35998535;194.95799255;5.65500021;25;21;49
290.79400635;191.15899658;6.79099989;68;25;104
290.87799072;191.50399780;6.72200012;56;70;127
290.97399902;191.89500427;6.74800014;52;67;120
291.07598877;192.30799866;6.71199989;51;61;116
291.17001343;192.69299316;6.63199997;48;52;103
291.28100586;193.14399719;6.75699997;51;69;119
291.37298584;193.52000427;6.68300009;39;83;115
291.48300171;193.96899414;6.71099997;40;81;115
291.57998657;194.36199951;6.71400023;43;89;125
291.67800903;194.76300049;6.64599991;50;70;119
291.01800537;191.13200378;6.74300003;66;40;113
291.10900879;191.50199890;6.74100018;54;74;128
291.20901489;191.91099548;6.72399998;50;75;124
291.31698608;192.35000610;6.69600010;52;60;114
291.39801025;192.68099976;6.50500011;49;28;83
291.51300049;193.14799500;6.73099995;55;64;122
291.61700439;193.57099915;6.72100019;45;89;128
291.71899414;193.98599243;6.69199991;42;91;124
291.81698608;194.38499451;6.67899990;44;87;125
291.82998657;194.44000244;5.81799984;23;18;43
291.53900146;191.64300537;6.75799990;66;38;112
291.63101196;192.01800537;6.71199989;59;54;118
291.72698975;192.40600586;6.55100012;56;37;99
291.93200684;193.24099731;6.79799986;68;31;107
292.02899170;193.63800049;6.72200012;56;71;128
292.12500000;194.02999878;6.69099998;44;87;126
292.18798828;194.28700256;6.33300018;48;44;96
292.20401001;194.07299805;6.71600008;43;95;129
292.10501099;194.47000122;6.76499987;68;23;101
292.04901123;193.62300110;6.21799994;46;18;71
291.98800659;193.86999512;6.68800020;37;109;130
291.89599609;194.23599243;6.69799995;42;97;129
291.79299927;194.64900208;6.69399977;55;66;123
291.73800659;193.36700439;6.47700024;50;45;100
291.66400146;193.66299438;6.70100021;38;102;128
291.57501221;194.01899719;6.70800018;39;91;120
291.47399902;194.41799927;6.71400023;39;93;123
291.37701416;194.80799866;6.71500015;38;103;127
291.29299927;195.13999939;6.73699999;61;53;119
291.63000488;191.89399719;6.57999992;53;57;114
291.54699707;192.22700500;6.70499992;47;82;125
291.35400391;192.99699402;6.59399986;51;45;101
291.26199341;193.36099243;6.68200016;38;93;120
291.16500854;193.74899292;6.69299984;37;87;115
291.07598877;194.10600281;6.69799995;37;92;119
290.97198486;194.52000427;6.72499990;38;97;123
290.87100220;194.92199707;6.71999979;39;96;125
290.78500366;195.26300049;6.71000004;39;99;126
290.69500732;195.62300110;6.74300003;45;93;130
291.37399292;191.57899475;6.60400009;48;71;119
291.27600098;191.96800232;6.71999979;43;89;125
291.18701172;192.32499695;6.68499994;42;86;122
291.09298706;192.69900513;6.70499992;53;48;107
290.89099121;193.50399780;6.65399981;38;70;105
290.80300903;193.85600281;6.67799997;38;83;113
290.70199585;194.25599670;6.68100023;38;88;117
290.60101318;194.66099548;6.70499992;37;92;119
290.50500488;195.04100037;6.73799992;41;98;129
290.40899658;195.42300415;6.73199987;44;87;126
291.21499634;191.32299805;6.62400007;52;67;120
291.12701416;191.67500305;6.72200012;44;95;132
291.02398682;192.08200073;6.73500013;41;81;117
290.92898560;192.46400452;6.72700024;47;69;116
290.83300781;192.84500122;6.75799990;56;53;113
290.62298584;193.68200684;6.67000008;43;73;113
290.53500366;194.03500366;6.68900013;38;89;118
290.43798828;194.41900635;6.67399979;35;99;120
290.34799194;194.77999878;6.70300007;39;96;124
290.25100708;195.16700745;6.71600008;41;92;125
290.94799805;191.12800598;6.65899992;51;72;123
290.85501099;191.49699402;6.73299980;45;94;131
290.74899292;191.91999817;6.72900009;44;83;123
290.66000366;192.27699280;6.73400021;41;84;120
290.57101440;192.62899780;6.71500015;42;76;114
290.47698975;193.00500488;6.72800016;50;64;116
290.36898804;193.43499756;6.70100021;59;14;83
290.26800537;193.83700562;6.58500004;52;32;91
290.19900513;194.10200500;5.64699984;14;12;28
290.18099976;194.18499756;6.65700006;41;85;119
290.07998657;194.58700562;6.69099998;39;91;121
289.98001099;194.98599243;6.73500013;41;96;128
290.46398926;191.23699951;6.60699987;56;46;107
290.37200928;191.60299683;6.72900009;41;92;125
290.26501465;192.02799988;6.71500015;42;83;119
290.17300415;192.39599609;6.68100023;42;75;113
290.08200073;192.75799561;6.70599985;38;83;114
289.97698975;193.17799377;6.71099997;38;86;116
289.87399292;193.58599854;6.72100019;62;34;104
289.63699341;194.52999878;6.03399992;30;15;50
289.58499146;194.73899841;6.63700008;53;53;110
290.04098511;191.65199280;6.68200016;49;66;116
289.94299316;192.04499817;6.70800018;46;80;123
289.84899902;192.41900635;6.72700024;45;81;122
289.76300049;192.76100159;6.71000004;41;80;116
289.65701294;193.18400574;6.70300007;45;78;119
289.69198608;191.83799744;6.56400013;49;53;105
289.60800171;192.17500305;6.71299982;48;83;127
289.52200317;192.51800537;6.72900009;44;90;127
289.42999268;192.88099670;6.71500015;50;70;120
289.28100586;192.08200073;6.55800009;57;33;97
289.18899536;192.44999695;6.70900011;49;76;123
288.72299194;194.30900574;6.69999981;57;59;119
288.36999512;193.66600037;6.23099995;38;24;68
288.30700684;193.92399597;6.69700003;46;85;127
288.20800781;194.31500244;6.69399977;47;82;125
288.11300659;194.69299316;6.73799992;55;70;127
288.10699463;193.41000366;6.61899996;53;63;119
288.01998901;193.76100159;6.72100019;46;86;128
287.92401123;194.13999939;6.72300005;43;88;124
287.82699585;194.52799988;6.73299980;47;78;122
287.72698975;194.92599487;6.74200010;52;74;126
287.63400269;195.30000305;6.72599983;63;3;80
287.94000244;193.12600708;6.53100014;61;24;94
287.84899902;193.48899841;6.69999981;44;90;128
287.75601196;193.85899353;6.73500013;43;88;125
287.66598511;194.22000122;6.72800016;44;84;123
287.55999756;194.64100647;6.73000002;46;79;121
287.46899414;195.00700378;6.74200010;50;78;126
287.37200928;195.39100647;6.69099998;64;38;110
287.51501465;193.49800110;6.69700003;45;75;118
287.42999268;193.83700562;6.72599983;44;83;123
287.33801270;194.20799255;6.72200012;48;76;122
287.23800659;194.60299683;6.70499992;43;80;119
287.14801025;194.96299744;6.73699999;51;75;124
287.05398560;195.33799744;6.71700001;51;78;127
287.02999878;193.84300232;6.69999981;43;85;123
286.93899536;194.20399475;6.73000002;45;80;121
286.83898926;194.60400391;6.73199987;48;80;124
286.74301147;194.98800659;6.71600008;44;82;122
286.64999390;195.35899353;6.70900011;48;76;122
286.63800049;194.02200317;6.54600000;50;50;103
286.56100464;194.33000183;6.76200008;49;84;130
286.46099854;194.72900391;6.73199987;49;82;127
286.36700439;195.10400391;6.78499985;60;54;120
286.33801270;194.23800659;6.56799984;55;54;113
286.24499512;194.60899353;6.74800014;45;92;131
285.91299438;194.47599792;6.26000023;49;16;73
286.05300903;194.81599426;6.28100014;47;25;79
286.11499023;194.58299255;6.75899982;62;53;121
286.30300903;195.18699646;6.30299997;44;32;81
286.38400269;194.88099670;6.70599985;52;67;120
286.48999023;194.48399353;6.75000000;56;66;124
286.68499756;195.58999634;6.43100023;50;43;98
286.76400757;195.29400635;6.71299982;50;77;126
286.86999512;194.89300537;6.74499989;47;78;124
286.97000122;194.52000427;6.73400021;49;72;121
287.08200073;194.09899902;6.71299982;50;67;118
287.19400024;193.68099976;6.75799990;64;35;107
287.01699829;195.69400024;6.49599981;54;38;99
287.10000610;195.38000488;6.70200014;54;69;125
287.22000122;194.92999268;6.72100019;52;65;118
287.32299805;194.54200745;6.72900009;49;78;125
287.43899536;194.11000061;6.70699978;49;69;117
287.54699707;193.70399475;6.69600010;51;62;116
287.41101074;195.27799988;5.58799982;31;21;56
287.41198730;195.26600647;6.68499994;51;74;124
287.51699829;194.86999512;6.76000023;49;83;129
287.62100220;194.48199463;6.76700020;54;62;120
287.72799683;194.07800293;6.73299980;48;76;123
287.83898926;193.66499329;6.70200014;51;73;124
287.94000244;193.28300476;6.72700024;64;49;119
287.80099487;195.16200256;6.52799988;55;32;93
287.85998535;194.94200134;5.94500017;25;11;40
287.89801025;194.79499817;6.73999977;51;75;124
288.00399780;194.39799500;6.69500017;52;66;119
288.10101318;194.03300476;6.73500013;54;65;123
288.21301270;193.61300659;6.77400017;62;57;124
288.44601440;194.58200073;5.60400009;27;28;57
288.44500732;194.57600403;6.71600008;55;67;125
288.54598999;194.19700623;6.74800014;59;62;124
288.98599243;192.54499817;6.66200018;61;37;105
288.83700562;194.37699890;6.66599989;60;6;78
289.26699829;192.76199341;6.67799997;51;62;116
289.36999512;192.37600708;6.72200012;55;64;121
289.41598511;193.10800171;6.62699986;50;55;107
289.51400757;192.74200439;6.72200012;52;66;119
289.63400269;192.28999329;6.73799992;52;70;123
289.74600220;191.87199402;6.72800016;64;27;101
289.66198730;193.37800598;6.65399981;49;55;106
289.76998901;192.97300720;6.70300007;47;67;114
289.86898804;192.60099792;6.69600010;43;73;113
289.98199463;192.17799377;6.73099995;50;71;121
290.09399414;191.75900269;6.68499994;54;48;107
289.70401001;194.92399597;6.45200014;44;45;93
289.78100586;194.62899780;6.73799992;49;79;125
290.10198975;193.43299866;5.66599989;12;13;25
290.11401367;193.38400269;6.63299990;51;50;105
290.20199585;193.05000305;6.72599983;46;72;116
290.29998779;192.68200684;6.72800016;47;67;114
290.41699219;192.24400330;6.72200012;47;75;119
290.52700806;191.83299255;6.72800016;51;72;122
290.63000488;191.44500732;6.67799997;56;61;121
289.93499756;195.22399902;6.30399990;42;28;74
290.00900269;194.94400024;6.71700001;41;92;124
290.11099243;194.55900574;6.67199993;39;85;117
290.21899414;194.15400696;6.69600010;51;69;120
290.32101440;193.77099609;6.71600008;60;14;85
290.45800781;193.25900269;6.42299986;39;21;65
290.53399658;192.97999573;5.68300009;11;6;19
290.53298950;192.97599792;6.73899984;46;74;118
290.63699341;192.58599854;6.71299982;47;67;114
290.75500488;192.14199829;6.72200012;49;67;116
290.86999512;191.71000671;6.70200014;49;75;123
290.96499634;191.35299683;6.70400000;56;68;127
290.12701416;195.40299988;6.39300013;45;42;91
290.21099854;195.08399963;6.70300007;40;93;123
290.32101440;194.67100525;6.70400000;41;88;122
290.42800903;194.27099609;6.67899990;39;84;116
290.53799438;193.86000061;6.71199989;50;71;120
290.75399780;193.04800415;6.66300011;55;42;103
290.85299683;192.67700195;6.71600008;49;63;113
290.97399902;192.22000122;6.69099998;45;69;113
291.09600830;191.76400757;6.69500017;49;81;127
291.19500732;191.39300537;6.69099998;63;41;112
290.42599487;195.68699646;6.32900000;50;30;86
290.48599243;195.45700073;6.69600010;42;90;124
290.59201050;195.05999756;6.71199989;42;91;125
290.70700073;194.62699890;6.71700001;41;83;119
290.81698608;194.21499634;6.69000006;41;77;114
290.92898560;193.79600525;6.67299986;39;83;115
291.04199219;193.36999512;6.73000002;46;78;121
291.26300049;192.54899597;5.64799976;23;8;35
291.25500488;192.57299805;6.69099998;51;59;113
291.35900879;192.18200684;6.72100019;54;66;121
291.46301270;191.78999329;6.74599981;62;51;118
291.00399780;195.38800049;5.75799990;30;28;61
291.02600098;195.29699707;6.67600012;46;83;124
291.13800049;194.87699890;6.71500015;40;98;126
291.24099731;194.49099731;6.72800016;39;97;125
291.34298706;194.10899353;6.69399977;37;84;113
291.45199585;193.69799805;6.69799995;38;92;120
291.56201172;193.28399658;6.75600004;56;64;123
291.81600952;192.33700562;6.28900003;47;14;69
291.48498535;195.01100159;6.61199999;58;45;108
291.58099365;194.64999390;6.69000006;42;90;125
291.68301392;194.26699829;6.71199989;40;92;123
291.79998779;193.82800293;6.70200014;43;96;129
291.87600708;194.54200745;6.66599989;50;73;122
291.96899414;194.19200134;6.68499994;42;94;127
292.07901001;193.77799988;6.74300003;67;36;112
292.32101440;194.12100220;6.68800020;55;68;124
